# .PCD v0.7 - Point Cloud Data file format
VERSION 0.7
FIELDS x y z
SIZE 4 4 4
TYPE F F F
COUNT 1 1 1
WIDTH 1295
HEIGHT 1
VIEWPOINT 0 0 0 1 0 0 0
POINTS 1295
DATA ascii
34.82265091 -12.44390678 10.2124424
30.2686367 -11.0264883 8.900896072
30.1615448 -11.19757748 8.889484406
29.65580177 -11.21734715 8.761036873
30.18380356 -11.62925434 8.937253952
30.10918808 -11.81318283 8.936457634
30.08269501 -12.01630497 8.950258255
29.96909904 -12.18468475 8.938581467
26.84955406 -11.10886478 8.031750679
26.45209312 -11.13500214 7.93355751
26.36377335 -11.28875065 7.927719116
25.54971123 -11.126194 7.704262733
25.025177 -11.08094597 7.567056656
24.6753788 -11.1076498 7.482132912
24.60676003 -11.25884628 7.482132912
23.96632385 -11.14417076 7.308834076
23.37008667 -11.04183865 7.148274422
22.54656029 -10.82247639 6.917653084
22.21367645 -10.83089924 6.83617878
21.83489227 -10.81254673 6.740373611
21.47957611 -10.80121994 6.651469231
21.13467789 -10.79076767 6.565483093
20.81298447 -10.78803158 6.486397743
20.5032196 -10.78759384 6.410761833
20.20871162 -10.79148769 6.339637756
19.85051346 -10.75726604 6.248344421
19.58897591 -10.77155399 6.187040329
19.28086472 -10.75673771 6.110874176
19.01563454 -10.76229477 6.047976494
18.72097015 -10.74772549 5.975525856
18.44137383 -10.73819828 5.907587051
18.16924858 -10.72957039 5.841770172
17.9268837 -10.7353487 5.785243034
17.68596077 -10.7390604 5.728981018
17.54666138 -10.80239391 5.705361366
17.46696472 -10.90168762 5.701114655
17.40870476 -11.014328 5.704033852
17.35621452 -11.13082695 5.709076881
17.28759003 -11.237113 5.709076881
16.53635597 -10.89373875 5.484292984
16.31764793 -10.89382458 5.434134483
16.10196304 -10.89326096 5.384772301
15.87815571 -10.88446808 5.332490921
15.68832779 -10.89644146 5.291356087
15.43587685 -10.86211205 5.228989601
15.2833643 -10.89561749 5.200062752
15.19902611 -10.97677135 5.194224358
14.83802509 -10.85521507 5.094172478
14.65881538 -10.86282349 5.055691719
14.46465397 -10.85706711 5.011902809
14.29261112 -10.86567974 4.97554493
14.09198093 -10.85024166 4.929101944
14.06087399 -10.96436787 4.94157505
13.84956551 -10.93691158 4.891151428
13.69936848 -10.9554491 4.861958504
13.5322361 -10.95860291 4.826662064
13.35290909 -10.94972801 4.78685379
13.0228796 -10.81342602 4.69290638
12.85370445 -10.80688858 4.656017303
12.69391441 -10.80618382 4.622313499
12.5331583 -10.80266953 4.588078499
12.38091946 -10.80456638 4.556762695
12.33462048 -10.89820576 4.564193726
12.08858585 -10.81363106 4.498111725
11.90051651 -10.77758026 4.452996254
11.95426559 -10.96051025 4.497846603
12.3022995 -11.41932487 4.653894424
12.30226231 -11.5606184 4.680433273
12.29466438 -11.69635773 4.704583168
12.23099899 -11.7796011 4.70776844
12.09221745 -11.78981495 4.682291031
11.96886921 -11.81367207 4.662652016
11.79999161 -11.790802 4.625232697
11.66302681 -11.79784775 4.600020409
11.57963848 -11.85815239 4.595774651
11.46114349 -11.88179398 4.577728271
11.33547878 -11.89675236 4.556762695
11.18825817 -11.88745117 4.527039528
11.05733681 -11.89373779 4.503684998
10.89871883 -11.86833477 4.4689188
10.77905178 -11.88356876 4.449810982
10.64223671 -11.87839413 4.423538208
10.5052557 -11.87127018 4.396999359
10.38589859 -11.88251305 4.377625465
9.275723457 -10.74477291 3.940797329
9.165205002 -10.74939537 3.92195487
9.069887161 -10.77077007 3.909481525
8.996846199 -10.81806469 3.906562328
8.985373497 -10.94011688 3.930447102
8.989748001 -11.08340073 3.961762905
8.974615097 -11.20457172 3.985117197
9.263978958 -11.71237755 4.144083977
9.168201447 -11.73860645 4.133468628
9.052429199 -11.73814487 4.113830566
8.915982246 -11.70909214 4.084637642
8.805727959 -11.71271706 4.067121506
8.683124542 -11.6984005 4.043767929
8.571857452 -11.69779968 4.025455952
8.471664429 -11.71111679 4.012187004
8.36210537 -11.71030903 3.994405746
8.241211891 -11.69204998 3.971051455
8.130220413 -11.68620491 3.952208996
8.039260864 -11.70805359 3.942920446
7.907772064 -11.66936684 3.91372776
7.220179558 -10.79682255 3.608797073
7.068295956 -10.71136379 3.566069603
6.935623646 -10.65192223 3.532365322
6.7768507 -10.54908085 3.484860897
6.652637482 -10.49681473 3.454341412
6.552325249 -10.48021126 3.435764313
6.52180624 -10.57520008 3.453545332
6.421218872 -10.55653477 3.434702635
6.326563835 -10.54613018 3.418779373
6.247498035 -10.56068611 3.411083221
6.15051651 -10.54385757 3.393567562
6.053016663 -10.52456665 3.375521183
5.989752293 -10.56402493 3.376317501
5.905062199 -10.56523228 3.365171194
5.829423428 -10.58184242 3.359067202
5.763924599 -10.6165657 3.358801842
5.679115772 -10.61517715 3.347390175
5.487981796 -10.41101646 3.273081541
5.411554813 -10.42053699 3.265650749
5.325119019 -10.40976906 3.252115965
5.250298977 -10.42072201 3.245481253
5.166975021 -10.41387749 3.233538628
5.081816673 -10.402071 3.220269442
5.008701324 -10.41394138 3.214430809
4.92820406 -10.40962315 3.203815222
4.847950459 -10.40470886 3.193199873
4.774372101 -10.41322613 3.186830521
4.693339348 -10.40453434 3.175418854
4.611811638 -10.39347935 3.163476229
4.539467335 -10.40214062 3.157637835
4.465289116 -10.40587711 3.150472403
4.383740902 -10.39132881 3.137999058
4.313619614 -10.40289116 3.133487463
4.235880852 -10.39523506 3.123402834
4.161983013 -10.39596844 3.115971804
4.085059643 -10.38811207 3.106152534
4.012210846 -10.38959789 3.099252462
3.933686972 -10.37525654 3.087840796
3.86793375 -10.39377594 3.086248398
3.789533138 -10.3774662 3.074571371
3.718632698 -10.38055325 3.068732977
3.6452806 -10.37588692 3.060771227
3.577778339 -10.38712025 3.05758667
3.501023054 -10.37051105 3.046440363
3.430965662 -10.37257481 3.04086709
3.360420942 -10.37233639 3.034763336
3.292341232 -10.37897491 3.030782461
3.218873501 -10.36767483 3.021759272
3.146510124 -10.35863304 3.013532162
3.076850653 -10.35741138 3.007693768
3.007593632 -10.35665226 3.002120495
2.93977809 -10.36007118 2.99787426
2.870746374 -10.35840225 2.992301226
2.803356886 -10.36186218 2.988320351
2.734802485 -10.36022472 2.983012676
2.667335749 -10.36187172 2.978766441
2.596197367 -10.34811783 2.970273972
2.52990675 -10.35261345 2.967089415
2.462989092 -10.35387325 2.96310854
2.393977642 -10.3453083 2.956473827
2.325375795 -10.33722687 2.950104475
2.259021759 -10.33811378 2.94638896
2.193745136 -10.34329128 2.944000483
2.125575781 -10.33389378 2.937631369
2.060243368 -10.337286 2.934977293
1.991478324 -10.32227898 2.927281141
1.927043319 -10.3286171 2.925688744
1.862434626 -10.33360481 2.923831224
1.796515226 -10.33059025 2.919850349
1.732137799 -10.33571339 2.918257952
1.664079785 -10.31759262 2.91029644
1.599263787 -10.3180809 2.907642365
1.535355687 -10.32388496 2.906580925
1.471028447 -10.32643032 2.904723167
1.403864741 -10.30755711 2.897027016
1.340343714 -10.31406498 2.896496058
1.275848269 -10.3125267 2.89384222
1.210972309 -10.30675507 2.890126944
1.146215081 -10.30057716 2.886411428
1.081780791 -10.29590988 2.883226871
1.017542005 -10.29179859 2.880307436
0.9540176392 -10.29400921 2.879245996
0.8902549744 -10.29294491 2.877388239
0.8276996017 -10.30590153 2.879511356
0.7626651525 -10.28674889 2.872876644
0.699205339 -10.28642654 2.871549606
0.6358972788 -10.28763485 2.870753527
0.572439909 -10.28556728 2.869161129
0.5090318322 -10.28310871 2.86756897
0.4456336796 -10.27929592 2.865711212
0.3825527132 -10.28183651 2.865711212
0.3192774951 -10.27820873 2.864118814
0.2560130954 -10.27226257 2.861995697
0.1931421757 -10.28231621 2.864384174
0.1298884451 -10.27077484 2.860934258
0.06688465178 -10.27427101 2.861730337
0.003842453007 -10.27641582 2.862261057
-0.05920701101 -10.27528286 2.861995697
-0.122242406 -10.27376175 2.861730337
-0.1851399541 -10.2651062 2.85960722
-0.2482848018 -10.27052402 2.861464977
-0.3112405241 -10.26688004 2.860934258
-0.3744415939 -10.2705574 2.862526417
-0.4373714924 -10.26613998 2.861995697
-0.4999798238 -10.25555992 2.85987258
-0.5632671118 -10.25903702 2.861730337
-0.6262047291 -10.25538731 2.861730337
-0.6893773675 -10.25520134 2.862792015
-0.752853334 -10.25847054 2.864914894
-0.8155546188 -10.25077534 2.864118814
-0.8795070648 -10.25806522 2.86756897
-0.9422564507 -10.25055599 2.867038012
-1.006075859 -10.25417614 2.869692087
-1.069375396 -10.25164604 2.870753527
-1.132469893 -10.2468071 2.871284246
-1.195768833 -10.24349689 2.872345924
-1.259540319 -10.24362183 2.874469042
-1.322740674 -10.23857021 2.875265121
-1.385797262 -10.23217201 2.875795841
-1.448419213 -10.22252178 2.875530481
-1.513091207 -10.2267952 2.879245996
-1.577282548 -10.22684669 2.881899834
-1.64198935 -10.22935104 2.885349751
-1.706627965 -10.23049545 2.888534546
-1.771177769 -10.23028183 2.891453743
-1.833916306 -10.21922207 2.891453743
-1.90151608 -10.23431778 2.898884535
-1.965731978 -10.23003292 2.901007652
-2.063753605 -10.39556885 2.950900555
-2.136982203 -10.42899227 2.963904619
-2.195950747 -10.39210033 2.957269907
-2.2697227 -10.42459297 2.970273972
-2.588567734 -11.54789925 3.29112792
-2.358918905 -10.22872543 2.923034906
-2.745205402 -11.5790596 3.309174299
-3.111181259 -12.7732296 3.652320862
-3.17827177 -12.70900249 3.639582157
-2.959070921 -11.53123665 3.310501099
-3.02878809 -11.50913239 3.309439659
-3.069223166 -11.37862682 3.277593136
-3.140523911 -11.36515617 3.279185534
-3.11676383 -11.01540089 3.184707403
-2.988277912 -10.31908798 2.990708828
-3.032917976 -10.23769569 2.972662449
-3.101268291 -10.23734856 2.977970123
-3.177997351 -10.26325607 2.990974188
-3.258940935 -10.30055523 3.007428169
-3.342240095 -10.3427515 3.025474548
-3.423158169 -10.3751545 3.04086709
-3.505829811 -10.41060638 3.05732131
-3.595643044 -10.46458054 3.079348326
-3.678916216 -10.49691486 3.095271587
-3.758827925 -10.51772499 3.108010292
-3.849032164 -10.56512356 3.128710508
-4.219136715 -11.3638258 3.370213509
-4.294582844 -11.35305405 3.374725103
-4.370402813 -11.34268379 3.379502058
-4.445551872 -11.33001423 3.383748293
-4.540379524 -11.36609364 3.402590752
-4.613666534 -11.34695244 3.405244589
-4.699789524 -11.35852146 3.417187214
-4.773510456 -11.33924484 3.420106411
-4.849068642 -11.32392216 3.424352646
-4.935011864 -11.33196735 3.435764313
-5.018503189 -11.33320999 3.445318222
-5.095467091 -11.31890774 3.450360537
-5.176856041 -11.31373215 3.458322287
-5.256747723 -11.30448437 3.465222359
-5.348252773 -11.31909084 3.479553223
-5.432206154 -11.3164835 3.488841772
-5.512526989 -11.30547047 3.495741844
-5.597621918 -11.3034029 3.505561352
-5.681166172 -11.29726887 3.514319181
-5.757831097 -11.27679539 3.518830776
-5.862410069 -11.30973339 3.540061712
-5.943366528 -11.29573441 3.546961784
-5.659242153 -10.59737587 3.340490103
-5.694761276 -10.5082016 3.323505163
-5.757737637 -10.47052574 3.322709084
-5.825633049 -10.44173527 3.324832201
-5.886743546 -10.40075874 3.323239803
-5.953330517 -10.36946011 3.324832201
-6.021695137 -10.34106731 3.327486038
-6.083072662 -10.30060387 3.32642436
-6.147151947 -10.26473999 3.326955318
-6.208518982 -10.2243557 3.326159
-6.272654057 -10.18853092 3.326955318
-6.343729019 -10.16375637 3.331466913
-6.409582138 -10.13034344 3.333324671
-6.459649086 -10.07215691 3.327220678
-7.310533047 -11.24652767 3.725833178
-7.408574581 -11.24574184 3.740429401
-7.505809307 -11.24257088 3.754495144
-7.591937542 -11.22185993 3.762987375
-7.706441402 -11.24186611 3.785279989
-7.812123299 -11.24742413 3.803061008
-7.903182507 -11.23081875 3.813676596
-8.018956184 -11.24806118 3.83596921
-8.1205616 -11.24397945 3.851361513
-8.199077606 -11.20717049 3.855873108
-8.310741425 -11.21474838 3.875777245
-8.427433014 -11.22754574 3.897804499
-8.532341957 -11.22321224 3.91425848
-8.636336327 -11.21648502 3.930181742
-8.732860565 -11.19901657 3.942655087
-8.856383324 -11.21483612 3.967070818
-8.965373039 -11.21073341 3.984851837
-9.067362785 -11.19672298 3.999448061
-9.168294907 -11.18039036 4.013513565
-9.314943314 -11.21812916 4.047218323
-9.418345451 -11.20208931 4.06207943
-9.521900177 -11.18520355 4.07694149
-9.637560844 -11.18134022 4.096845627
-9.752262115 -11.17502594 4.116218567
-11.12099457 -12.58678627 4.656813622
-11.14595032 -12.4601059 4.635317802
-11.14647388 -12.30786705 4.60426712
-10.3695507 -11.30969143 4.257139206
-11.10580349 -11.9645195 4.527039528
-11.11694622 -11.83010387 4.502092361
-11.1514473 -11.72185135 4.486965179
-10.98506737 -11.4059782 4.392487526
-10.97811985 -11.25966167 4.362233162
-11.01652431 -11.16120911 4.350291252
-11.14204407 -11.15069485 4.372583389
-11.25619125 -11.12753391 4.390364647
-11.41737843 -11.14919567 4.42619133
-11.52790165 -11.11976242 4.442379951
-11.67059994 -11.11998463 4.470776558
-11.78986263 -11.09640598 4.490150452
-12.07238388 -11.22342777 4.570828438
-12.18718147 -11.19153118 4.588078499
-12.35202789 -11.20399094 4.623905182
-12.49019337 -11.19039726 4.649648666
-12.64237499 -11.18766689 4.680433273
-12.7797451 -11.17016506 4.705645561
-12.848773 -11.09216881 4.705910683
-12.99509144 -11.08005619 4.734307289
-13.09380722 -11.02619648 4.745452881
-13.29538631 -11.05723572 4.793488503
-13.43077946 -11.03113556 4.817638397
-13.61127853 -11.0402317 4.857712746
-13.92934418 -11.15722752 4.946086884
-14.07542706 -11.13315582 4.973421097
-14.27036572 -11.14569473 5.017741203
-14.43849945 -11.13505745 5.052507401
-14.60396671 -11.12043762 5.086211205
-14.77056599 -11.10478306 5.120181084
-14.86397266 -11.03290653 5.128938675
-15.05193043 -11.02982998 5.170073509
-15.20290852 -10.99773312 5.198470116
-15.4066267 -11.00173664 5.24464798
-15.6030798 -10.99809647 5.288171768
-15.78186035 -10.97979069 5.325591087
-15.98881817 -10.97880554 5.372299194
-16.21072006 -10.985425 5.423784256
-16.40444565 -10.9704361 5.465716362
-16.63480568 -10.97737789 5.519589424
-16.82304192 -10.95401764 5.559397697
-17.04081154 -10.9475193 5.60875988
-17.26238823 -10.94082165 5.659183502
-17.47062302 -10.92312336 5.705095291
-17.72441864 -10.93111515 5.765604019
-17.95672226 -10.92286968 5.818946838
-18.18710518 -10.91069412 5.871494293
-18.42713737 -10.90149879 5.926959991
-18.67939186 -10.89656639 5.986141205
-18.94314003 -10.8951931 6.048772812
-19.18324471 -10.87719917 6.103708267
-19.45749664 -10.87548161 6.169259071
-19.73920059 -10.87452507 6.236932755
-19.9995842 -10.85855484 6.297706604
-20.07008553 -10.73790932 6.299034119
-20.0272789 -10.55745888 6.265329361
-20.03948784 -10.40726757 6.249140739
-19.99824905 -10.23053837 6.216763496
-19.98229599 -10.0681591 6.192613602
-20.06701469 -9.956931114 6.199778557
-20.26720238 -9.90175724 6.242506027
-20.4961338 -9.858291626 6.293991089
-20.69304657 -9.797119141 6.33565712
-20.95115089 -9.762407303 6.395900726
-21.19207191 -9.716853142 6.450835228
-21.39367104 -9.650867462 6.493828773
-21.6084671 -9.588637352 6.540802002
-21.97617149 -9.59085083 6.633687973
-22.34027672 -9.587007523 6.725246429
-22.69537735 -9.574928284 6.813886642
-23.07253647 -9.56771183 6.908895493
-23.43705368 -9.550765038 6.999922752
-23.82638931 -9.539376259 7.098116875
-24.26759529 -9.543678284 7.211437225
-24.64768219 -9.518950462 7.306446075
-25.07704544 -9.508374214 7.415785789
-25.48279572 -9.483799934 7.517960548
-25.92812157 -9.468823433 7.631546021
-93.63630676 -33.54695511 27.41196442
-93.51747131 -32.85831833 27.31775284
-93.89325714 -32.34449387 27.36897278
-94.77506256 -31.99908447 27.56801224
-95.24330902 -31.50749397 27.64736366
-95.69074249 -31.00541687 27.72140694
-96.26148987 -30.53897476 27.83180809
-97.0253067 -30.12730026 27.99847221
-97.4177475 -29.59501648 28.05871391
-97.98382568 -29.11149788 28.16964722
-98.6003952 -28.63746643 28.2957058
-99.13320923 -28.13379669 28.3984108
-99.80661774 -27.6643219 28.54198647
-100.291832 -27.13727188 28.63248253
-100.4928207 -26.53098106 28.64283371
-102.8091888 -25.1276989 29.16564751
-74.17298889 -4.587362766 20.48932266
-71.9668045 -3.122451305 19.86168098
-71.34776306 -2.657091379 19.68625832
-71.73470306 -2.230829716 19.7886982
-62.87493515 -0.7972796559 17.34182358
-58.47667313 2.482492208 15.74945831
-58.46516418 2.841485739 15.75075531
-59.03610611 3.5958848 15.91490746
-58.4405365 3.919676781 15.76086903
-58.37685776 4.275366306 15.75049591
-57.61561203 4.931147575 15.5606699
-57.57464981 5.283694744 15.55807686
-57.14717484 5.952513218 15.46134853
-57.28195572 7.03458786 15.53006935
-56.63809586 7.308570862 15.36773205
-56.53667831 7.648448944 15.35269165
-56.54223251 8.002785683 15.3672142
-28.43100166 4.38117218 7.757846832
-58.91065979 10.93632412 16.12210846
-57.14923096 11.33655262 15.67788506
-57.18551254 11.70888901 15.70718861
-59.83186722 13.01767063 16.47504997
-59.99872589 13.44006443 16.54325104
-60.10086823 14.23967171 16.61819649
-59.83821106 14.95528889 16.59511566
-26.92977715 18.21398354 8.763249397
-26.54265785 18.19052887 8.673782349
-26.20286369 18.19496346 8.599355698
-25.86244202 18.19480705 8.524411201
-25.66773224 18.29430008 8.497181892
-25.5557785 18.45201492 8.497441292
-25.44363785 18.60961533 8.497960091
-25.32276535 18.76078415 8.495885849
-25.18554497 18.89957809 8.488624573
-25.04987907 19.03914833 8.482141495
-24.92340279 19.1854248 8.479029655
-24.79607391 19.33086395 8.475917816
-24.48521042 19.33124352 8.410308838
-24.20394897 19.3514595 8.354553223
-23.16596794 18.75579453 8.037139893
-22.88388824 18.76104736 7.979310036
-22.59742165 18.75922966 7.919665337
-22.38430214 18.81550789 7.885434628
-22.09705734 18.8066597 7.82501173
-21.76028824 18.75149918 7.746695995
-21.43304253 18.69990921 7.671232224
-21.1680603 18.69871902 7.61755228
-20.90534592 18.69627571 7.564390659
-20.68856621 18.73215294 7.527566433
-20.49349785 18.78565216 7.498522282
-20.21360207 18.75863838 7.438358784
-19.84260368 18.64227295 7.344223976
-19.61167145 18.65319252 7.301176071
-19.3806591 18.66130829 7.257868767
-19.14545059 18.6625824 7.212746143
-18.88002396 18.63114738 7.155953884
-18.63689041 18.61832428 7.107201099
-18.43198204 18.64099503 7.072710991
-18.23222351 18.66668892 7.040035725
-17.98992729 18.64615822 6.990764141
-17.79188728 18.66880226 6.958348751
-17.58167076 18.67636108 6.921005726
-17.34309578 18.6509285 6.872252941
-17.02774811 18.53863907 6.792640209
-16.85007858 18.5726738 6.767226219
-16.63331413 18.56135941 6.725993633
-16.41604614 18.5466404 6.684242249
-16.19195938 18.52123451 6.639379025
-15.94797993 18.46965981 6.585958004
-15.24773121 17.87937546 6.343230247
-15.03320885 17.84850502 6.299663544
-14.90364361 17.91665268 6.291365147
-14.68061924 17.8704567 6.243649483
-14.49158573 17.86270142 6.209937096
-14.24039745 17.7749176 6.149255276
-14.04237461 17.74986649 6.11087513
-13.87136173 17.75654411 6.083905697
-15.73306656 20.39614296 6.950309753
-14.55072308 19.10475922 6.48196888
-14.35659885 19.09179497 6.447738171
-14.18391323 19.10508728 6.422842979
-13.99162102 19.08971786 6.388871193
-12.83301163 17.73633194 5.911973
-12.66780472 17.73615265 5.886040688
-13.28669453 18.84596634 6.22523737
-12.34658718 17.74282455 5.837806225
-12.15710545 17.70122528 5.799685478
-12.02008343 17.73391724 5.786200523
-11.8637886 17.73669624 5.763380051
-11.73770809 17.78336525 5.755081654
-11.49870205 17.65597343 5.691287994
-11.42513371 17.78063011 5.70866251
-11.31995487 17.85692596 5.710737228
-11.24704742 17.98500061 5.729408741
-11.2886095 18.30026245 5.807206154
-11.16506386 18.35103035 5.801500797
-11.02193928 18.36867714 5.785682201
-10.87213326 18.3736248 5.766232491
-10.71051311 18.35657501 5.740300179
-10.55818272 18.353302 5.719035625
-10.41725731 18.36817741 5.703735352
-10.25722313 18.34745598 5.67780304
-10.10949039 18.34660721 5.658353329
-9.957085609 18.33530617 5.636051655
-9.812038422 18.3355999 5.617639542
-9.663308144 18.32711792 5.596893787
-9.519060135 18.32521629 5.578481674
-9.376960754 18.32567406 5.561106682
-9.240866661 18.33629608 5.547103405
-9.095118523 18.32604027 5.527135372
-8.940517426 18.29559898 5.501461983
-8.806732178 18.30572891 5.488236427
-8.678949356 18.32712555 5.47864151
-8.527976036 18.29774857 5.454265118
-8.389369965 18.29267311 5.437408924
-8.253929138 18.2927475 5.42236805
-8.119194984 18.29273415 5.407586575
-7.985933304 18.29441071 5.393582821
-7.862861633 18.31821823 5.386322021
-7.706001282 18.26112556 5.355721474
-7.578264713 18.27059746 5.344830036
-7.447785854 18.2720356 5.33186388
-7.311470985 18.25732231 5.314488888
-7.182335854 18.25870132 5.302041531
-7.053460121 18.25918388 5.289593697
-6.922107697 18.25155258 5.275071621
-6.78976965 18.23937607 5.259511948
-6.661154747 18.23533821 5.246545792
-6.548161983 18.27313805 5.24576807
-6.412536621 18.24645996 5.226837158
-6.289129734 18.25259209 5.21750164
-6.169288635 18.26796341 5.211018562
-6.038268089 18.24862671 5.19494009
-5.912781239 18.24399185 5.183270454
-5.796636581 18.26703835 5.179639816
-5.685015678 18.30410767 5.180158615
-5.545353413 18.2490139 5.155004025
-5.400253296 18.17160416 5.123885155
-5.278411865 18.16915512 5.114030838
-5.161552906 18.182621 5.10884428
-5.037500858 18.16927528 5.096396923
-4.917592525 18.16908073 5.087839127
-4.796643257 18.16343117 5.07798481
-4.678840637 18.16820335 5.071242332
-4.557396889 18.15722847 5.060350418
-4.438788414 18.15576553 5.05231142
-4.32171154 18.15917206 5.045828342
-4.205195904 18.16370773 5.039864063
-4.085393429 18.15242195 5.029750347
-3.968158007 18.15072823 5.022489071
-3.852100372 18.15300751 5.016524792
-3.734021664 18.14413834 5.007707596
-3.615252972 18.12977219 4.99759388
-3.499730587 18.1298027 4.991629601
-3.387004137 18.14333916 4.989554882
-3.26755619 18.11911011 4.977366924
-3.153501987 18.12264252 4.972958088
-3.039687395 18.12641144 4.968809128
-2.926407576 18.13232803 4.965437889
-2.872109175 18.51737404 5.065278053
-2.764124155 18.57285881 5.075650692
-2.651202202 18.59711838 5.07772541
-2.530386686 18.56423187 5.064499855
-2.421540976 18.61867523 5.07513237
-2.309628248 18.65235329 5.080318451
-2.195249081 18.66713142 5.08057785
-0.3845787644 3.461869717 0.9689839482
-0.3587811589 3.420942545 0.9573143125
-0.3373079598 3.418274164 0.956017673
-0.3165060282 3.422202587 0.9565363526
-0.2955852449 3.425042391 0.9567956924
-0.2754937708 3.438343763 0.9599075913
-1.268903852 18.63866234 5.049977779
-1.154216528 18.64127731 5.048681259
-1.039598703 18.64415359 5.047643661
-0.9256599545 18.65982628 5.050237179
-0.8111060262 18.66418839 5.049977779
-0.690292418 18.50088501 5.004855156
-0.578358233 18.55593491 5.01859951
-0.4641752839 18.54658127 5.015228271
-0.3497994542 18.51914597 5.007189274
-0.236050114 18.51225281 5.004855156
-0.1226502061 18.54232597 5.012634754
-0.008860628121 18.51761818 5.005892277
0.1048155054 18.52698326 5.008485794
0.2182551324 18.5057106 5.003039837
0.3319724202 18.5136795 5.005633354
0.4455871582 18.51225853 5.005892277
0.5588477254 18.49855804 5.003039837
0.6725524068 18.5005703 5.004595757
0.7856066823 18.48548317 5.001743317
0.8798029423 18.08480644 4.895420074
0.9951862693 18.16007423 4.917203426
1.105949998 18.14302063 4.914350986
1.215637326 18.11180305 4.907867908
1.323290706 18.05680656 4.895160675
1.43597126 18.0724144 4.901643753
1.547328353 18.06903648 4.903199673
1.689141154 18.3967762 4.994222641
1.817899585 18.54850769 5.038048744
1.933977604 18.55909729 5.044013023
2.05057168 18.57184029 5.050755501
2.157778978 18.50135231 5.035196304
2.277380943 18.53761101 5.048681259
2.389970541 18.5146656 5.046347141
2.50922513 18.54176521 5.057757378
2.629579067 18.57287598 5.070464134
2.739819527 18.53155136 5.063721657
2.854505062 18.5210743 5.065536976
2.971458197 18.52418709 5.071242332
3.086493254 18.51418114 5.07357645
3.203163147 18.51297569 5.078503609
3.324365854 18.53575325 5.090172768
3.438918114 18.51975441 5.091469765
3.531002283 18.38638306 5.060869217
3.656717539 18.42973709 5.078762531
3.770312548 18.40979195 5.07954073
3.662144184 17.33929825 4.792208672
3.907459021 17.95539665 4.96777153
4.02072382 17.94521904 4.971661568
4.134444714 17.93621063 4.976069927
4.248428822 17.92742157 4.980738163
4.359948635 17.90758324 4.982553005
4.481921673 17.92921638 4.99603796
4.595686913 17.9163475 5.000187397
4.71020031 17.90555763 5.005114555
4.820480347 17.87818527 5.005633354
4.941400528 17.88923264 5.017043591
5.086287022 17.98310852 5.051793098
5.202708721 17.97289848 5.057757378
5.329340458 17.99620056 5.073317051
5.446379662 17.98534584 5.07954073
5.558345795 17.9571228 5.081096649
5.67250061 17.93557167 5.084727287
5.7952075 17.93994904 5.095878124
5.913341999 17.92881584 5.102880001
6.029401302 17.91050148 5.108066559
6.142948627 17.88413048 5.111178398
6.263103962 17.87618256 5.119736195
6.38209343 17.86379051 5.127256393
6.50711441 17.86694717 5.139444828
6.63140583 17.86652374 5.150855064
6.754228592 17.86072922 5.160968781
6.879659653 17.86040878 5.172897816
7.003929138 17.85562325 5.183789253
7.130188942 17.85446739 5.195977688
7.260698318 17.86227608 5.211018562
7.388986588 17.8629055 5.224244118
7.50894022 17.84215546 5.231504917
7.631196976 17.82593346 5.240322113
7.768185139 17.84253311 5.258993626
7.89589119 17.83603859 5.271181583
8.019845009 17.81984329 5.280776501
8.360818863 18.27706909 5.430407047
8.525728226 18.33927727 5.464119434
8.654180527 18.32067871 5.47423315
8.794424057 18.32557106 5.491607666
8.927436829 18.31380463 5.504314423
9.062776566 18.30542183 5.518318176
9.21006012 18.31936455 5.53932333
9.335024834 18.28745461 5.546844006
9.458610535 18.25212669 5.553586483
9.445895195 17.95697403 5.481753349
9.434011459 17.67034149 5.412254333
10.00918198 18.47405243 5.675468922
9.406363487 17.10975266 5.276368141
10.28970051 18.44767761 5.705550671
10.43789387 18.44639587 5.724740505
10.5874176 18.44566536 5.744449139
10.71060085 18.39788437 5.749895096
10.88416672 18.43494606 5.782051563
10.26984787 17.1530056 5.401881218
10.97476578 18.07790756 5.712293148
10.97563934 17.83174324 5.656019688
11.07104206 17.74193764 5.649017811
11.20189571 17.70877266 5.660168648
11.34370327 17.69174194 5.676765442
11.50045681 17.69630814 5.700623512
11.88982201 18.05209732 5.837806225
12.16817093 18.23024178 5.918974876
11.47742939 16.96881485 5.534396172
11.60098743 16.926754 5.543732166
11.75255108 16.92427254 5.56629324
11.91063118 16.92925262 5.59170723
12.0624876 16.92349052 5.614008904
12.21867752 16.9219799 5.638126373
12.37301922 16.91606903 5.661206245
12.52544689 16.90579605 5.68324852
12.68864727 16.90819168 5.70995903
12.83948994 16.89229774 5.730964661
12.98472309 16.86753654 5.749376774
14.18110466 18.18983841 6.226793289
14.36126804 18.18965912 6.256615639
14.53532696 18.17965126 6.283585548
14.7043314 18.16143227 6.30822134
14.88774204 18.1590004 6.338821888
15.07167053 18.15499687 6.369421959
15.25673199 18.15015793 6.400281906
15.67451572 18.41659927 6.527350903
15.85215664 18.39543533 6.554061413
16.01298523 18.35313416 6.573770046
16.20713425 18.34718704 6.606963634
16.42241096 18.36258507 6.64845562
16.53347588 18.26004028 6.647936821
16.6295433 18.14116096 6.641713142
16.84959412 18.15630341 6.684761047
17.03342056 18.13000488 6.713286877
17.22754097 18.11262703 6.745702267
17.60763168 18.28626442 6.84995079
17.89207649 18.3549366 6.916337967
18.09525871 18.33692741 6.951087475
18.18627357 18.20436859 6.943048477
18.29831886 18.09311676 6.943307877
18.47738838 18.04731178 6.968980789
18.6996727 18.04156494 7.010732174
19.00507355 18.11239243 7.08308363
19.4097805 18.27216721 7.19148159
19.57527924 18.20271301 7.211190224
19.76484108 18.15412712 7.239716053
19.9244957 18.07664108 7.257349968
20.14220047 18.05008698 7.295989513
20.36683273 18.02730179 7.3369627
20.67191887 18.07236099 7.406461716
21.09453964 18.21471596 7.517193317
21.29702377 18.16265297 7.549349785
21.55653572 18.15670013 7.601473808
21.79078674 18.12661934 7.644521713
21.92174911 18.00912666 7.65152359
22.20283127 18.01301765 7.71064949
22.46217155 17.99601555 7.761995792
22.74333954 17.99328613 7.820603371
23.02911949 17.99074936 7.880507469
23.3172493 17.98655701 7.94092989
23.53857613 17.9280014 7.978532314
23.90439606 17.97595787 8.064628601
24.1499424 17.92970085 8.110010147
24.51110077 17.96560478 8.193772316
24.793787 17.93999672 8.251083374
25.11087227 17.93573189 8.319544792
25.23939323 17.79467392 8.325768471
25.37426376 17.65767479 8.33432579
25.49646187 17.51149368 8.338994026
25.61382294 17.36176491 8.342365265
25.75679588 17.2289772 8.354293823
25.85719109 17.06741905 8.35273838
25.58592987 16.66386223 8.232411385
26.11830902 16.78328896 8.369853973
26.43124199 16.75613403 8.436759949
26.80049324 16.76059151 8.521299362
27.32120705 16.85394287 8.653295517
29.35554695 17.86125946 9.260375023
29.69480515 17.81895828 9.332467079
29.99474716 17.74954987 9.392111778
30.31579971 17.68929672 9.458239555
30.42376709 17.50295067 9.458239555
32.11242676 18.21318436 9.946548462
32.07521439 17.93284988 9.900907516
30.25611687 16.67288017 9.309646606
30.65234566 16.64686775 9.399632454
33.61325836 17.98883057 10.27044487
33.72556686 17.78359795 10.27122307
33.84090424 17.5798893 10.27329731
33.85872269 17.32615471 10.2463274
33.81433105 17.04243851 10.20120525
33.84646225 16.79899788 10.17968082
33.87081146 16.55283356 10.15634251
34.3111496 16.50800896 10.25747871
34.83861542 16.4993248 10.38428879
35.74977875 16.66309357 10.62442303
36.26657104 16.63388252 10.74708366
36.7394371 16.57868958 10.85651875
36.99759674 16.42269897 10.90267849
37.64377594 16.43380928 11.06268215
38.61983109 16.5785656 11.31863594
38.90145493 16.41752243 11.37127876
39.41984177 16.35208702 11.4929018
39.96927643 16.29329681 11.62334251
43.91558456 17.58865356 12.73610497
44.13322067 17.36235428 12.76800156
42.4605751 16.40413284 12.25609493
43.19253159 16.38306808 12.43762207
71.48395538 26.61439514 20.51506996
71.83460999 26.24421501 20.56900978
71.01693726 25.45265198 20.29023552
72.59315491 25.51605225 20.69478226
73.138237 25.20451736 20.80551338
73.56510162 24.84768867 20.88305092
73.95731354 24.47563934 20.95125389
74.24023438 24.06486702 20.98911476
74.42147827 23.61998749 20.99897003
73.95628357 22.97379494 20.82781601
74.36752319 22.60214996 20.90405655
74.72051239 22.20952988 20.96447945
75.12989807 21.83040619 21.04123878
75.41387177 21.41200638 21.08350945
76.36188507 21.1757412 21.31145668
47.66597366 -11.91335773 13.22622871
47.10831833 -12.0815773 13.09215736
47.1089592 -12.39029789 13.11316299
46.60682297 -12.56449699 12.99491119
45.11287689 -12.45921516 12.60047817
44.25120926 -12.51399422 12.38160801
43.14753342 -12.48833466 12.09479427
41.74861145 -12.36160183 11.72473812
40.97408676 -12.40624809 11.52894783
39.99486923 -12.37819099 11.27532864
39.1676712 -12.38605785 11.06397915
38.20129395 -12.33883286 10.81295204
37.45346832 -12.35160637 10.62312698
36.58978271 -12.31624031 10.40010738
35.81383896 -12.30023861 10.20146465
34.91553116 -12.23176479 9.967553139
34.82435989 -12.44024849 9.963145256
33.57487869 -12.22676086 9.628097534
30.24682808 -11.22560978 8.696602821
30.22435379 -11.42875004 8.710087776
30.20593262 -11.63411999 8.725129128
31.06276703 -12.18349266 8.993011475
30.58111191 -12.21162891 8.875536919
29.98577499 -12.18777752 8.724869728
26.88136864 -11.11879539 7.84472084
26.45477867 -11.13294697 7.74047184
26.36910057 -11.28784084 7.735544682
25.59180641 -11.14143562 7.528344631
25.05224228 -11.08990574 7.390124321
24.69308281 -11.11263275 7.30454731
24.58930206 -11.24786949 7.294174194
24.03637886 -11.17382336 7.151026726
23.31676483 -11.01382065 6.957829952
22.58698273 -10.83915138 6.760743141
22.23702812 -10.83959579 6.676203251
21.87148476 -10.82801819 6.586736202
21.49312592 -10.8054285 6.493120193
21.18039513 -10.81153679 6.418952942
20.82381821 -10.79111481 6.331301212
20.51787758 -10.79280472 6.258690357
20.18373871 -10.77568817 6.177262306
19.89984703 -10.78156376 6.11087513
19.56587029 -10.75645161 6.028928757
19.29959488 -10.76481628 5.967468739
19.05329704 -10.78126049 5.911973
18.75140762 -10.76288223 5.839102745
18.44796562 -10.73975182 5.765454769
18.18876839 -10.7388401 5.705291271
18.1217041 -10.84974575 5.705031872
18.06056976 -10.96424198 5.706847191
18.00035667 -11.07940865 5.709181309
17.93449402 -11.19118214 5.70995903
17.87773323 -11.30875969 5.713849068
17.82995987 -11.43231583 5.720850945
17.76352501 -11.54413414 5.722147465
16.54296303 -10.8959713 5.352609634
16.34485626 -10.90988255 5.310339928
16.10320091 -10.89201832 5.253807068
15.88230896 -10.88525581 5.203757286
15.81125259 -10.97974777 5.202460766
15.62351704 -10.99209404 5.163043022
15.40162373 -10.97789001 5.112215519
15.25097275 -11.01226139 5.084727287
14.86271763 -10.87131023 4.978144646
14.67311859 -10.87146759 4.937171459
14.47171974 -10.86043644 4.892048836
14.28870106 -10.86078835 4.852890968
14.10086918 -10.85518265 4.811917305
14.04770851 -10.95218658 4.816585541
13.87563229 -10.95559311 4.780798435
13.70631027 -10.95911121 4.745789528
13.5254612 -10.9512434 4.70663166
13.35195255 -10.94708538 4.669807434
13.04821587 -10.83264446 4.587342262
12.86986351 -10.81867123 4.548184395
12.70835876 -10.81669044 4.514731407
12.55322075 -10.81818199 4.483353138
12.3687067 -10.79214954 4.441342354
12.1603775 -10.74252415 4.390514851
11.99704552 -10.73002434 4.355505943
11.91093445 -10.785285 4.348244667
11.90220261 -10.911026 4.369250298
11.88741779 -11.03246403 4.388440132
11.90115261 -11.18190289 4.418521881
11.88200569 -11.30197239 4.436933994
11.91122913 -11.46978474 4.473758221
12.00661564 -11.70444012 4.53599596
11.95244598 -11.79552746 4.542738438
11.81356525 -11.80243778 4.517583847
11.67165852 -11.80465698 4.491132736
11.5936079 -11.87052441 4.489058018
11.47428131 -11.89348125 4.471164703
11.35511112 -11.91542435 4.453271389
11.20101833 -11.89908504 4.42163372
11.06136799 -11.89615917 4.395442009
10.92087078 -11.8905468 4.368731499
10.76009369 -11.86077404 4.333722591
10.63683891 -11.87047386 4.313495159
10.51451111 -11.87983322 4.293527126
10.401371 -11.89832115 4.277189732
9.280962944 -10.74925423 3.846970081
9.182868004 -10.76852322 3.833744526
9.066223145 -10.7648344 3.812739134
9.007411957 -10.82917023 3.815851212
8.989844322 -10.94393349 3.836597204
8.983374596 -11.07388592 3.862529516
8.967796326 -11.19437122 3.885090828
9.274075508 -11.72331238 4.047428131
9.168076515 -11.73661613 4.032646656
9.051645279 -11.7352972 4.013197422
8.938504219 -11.73683548 3.99504447
8.797821045 -11.70038033 3.96444416
8.695349693 -11.71304417 3.950700045
8.585631371 -11.71476841 3.933584452
8.464897156 -11.69993973 3.911282539
8.34579277 -11.6856451 3.889499426
8.252229691 -11.70585155 3.87938571
8.134458542 -11.6904707 3.857861757
8.039607048 -11.70672703 3.846970081
7.905846119 -11.66470242 3.817407131
7.221404552 -10.79707432 3.521517515
7.084785938 -10.73478699 3.487286568
6.929704189 -10.64129066 3.443460703
6.797446251 -10.57961369 3.410267115
6.670863152 -10.52405834 3.379407644
6.558535576 -10.48864079 3.355290413
6.502168655 -10.54183769 3.359439611
6.431839943 -10.57245922 3.356586933
6.332556725 -10.55458546 3.338693619
6.241606712 -10.54919147 3.324949265
6.158263683 -10.55559254 3.315094948
6.056775093 -10.52955914 3.295386314
5.98538208 -10.55476379 3.291755676
5.910137177 -10.57274628 3.286050558
5.831634045 -10.58428097 3.278530121
5.773955822 -10.63344383 3.282679319
5.680801392 -10.61672974 3.266860485
5.493916512 -10.42072964 3.196842909
5.418741703 -10.43281841 3.190359831
5.333505154 -10.42460251 3.177912235
5.245097637 -10.40883636 3.163389921
5.173402786 -10.42525196 3.158722162
5.080499172 -10.39779568 3.141088009
5.009066582 -10.41310787 3.13642025
4.932262897 -10.41658974 3.128381252
4.853565216 -10.41514397 3.119045496
4.774669647 -10.41224861 3.109450579
4.700362206 -10.4184618 3.102708101
4.619888783 -10.41003227 3.091816425
4.541629314 -10.40543365 3.08222127
4.468553066 -10.41180515 3.075997591
4.394068241 -10.41411495 3.068736553
4.314172268 -10.40252018 3.057585478
4.242970467 -10.41090965 3.05239892
4.159259796 -10.38743877 3.038136244
4.092617035 -10.40557384 3.036061525
4.014073372 -10.39265251 3.025169849
3.941665888 -10.39451218 3.018686771
3.866354465 -10.38772774 3.009869814
3.791274786 -10.38041401 3.001052618
3.721319437 -10.38620758 2.99612546
3.649513721 -10.38606644 2.989642382
3.578794479 -10.38817596 2.983937263
3.505405188 -10.38157463 2.975898266
3.437694073 -10.39096832 2.972527027
3.361958742 -10.37511635 2.962153912
3.29268384 -10.37806034 2.957226753
3.221493483 -10.37408829 2.950484276
3.15103817 -10.37148285 2.944260597
3.078809977 -10.36192417 2.9362216
3.008974075 -10.35928822 2.930257082
2.941660881 -10.36454964 2.926626444
2.872589588 -10.36286068 2.921180725
2.805416822 -10.36723995 2.917550087
2.736325264 -10.36371517 2.911844969
2.667864799 -10.36160469 2.906658411
2.600474119 -10.36279202 2.902509212
2.529957294 -10.35040855 2.894729614
2.461480379 -10.34506798 2.889024496
2.395560741 -10.34962749 2.886171818
2.324587584 -10.33115387 2.877095461
2.259915113 -10.33956051 2.875539541
2.194625378 -10.34473038 2.873205662
2.127604485 -10.34097481 2.868537664
2.062791109 -10.34720516 2.866722584
1.995966673 -10.34259796 2.862054586
1.930695176 -10.34515762 2.859461308
1.863924384 -10.33875084 2.854534149
1.799126744 -10.34238052 2.852459669
1.732277513 -10.33322334 2.847013712
1.666840196 -10.33126354 2.843642473
1.598382354 -10.30884743 2.834825516
1.534102798 -10.31177425 2.833010197
1.468483806 -10.30473995 2.828601837
1.404835939 -10.31068516 2.827823877
1.341295004 -10.31719589 2.827305079
1.277014852 -10.31756306 2.825230598
1.210636139 -10.29930687 2.818228722
1.147524953 -10.30750179 2.818488121
1.083449006 -10.30666542 2.816413403
1.01971221 -10.30831337 2.815116882
0.9558172226 -10.30764389 2.813301563
0.8915522099 -10.3017683 2.810189724
0.8279374838 -10.30223179 2.808892965
0.7635633945 -10.29170799 2.804743767
0.7007942796 -10.30198097 2.806299925
0.6363145709 -10.28584385 2.800853968
0.5738358498 -10.30112648 2.803965807
0.5098998547 -10.28998375 2.800076008
0.4467520714 -10.29291916 2.800076008
0.3835875094 -10.29546642 2.800076008
0.3200466633 -10.28604317 2.796964169
0.2567570508 -10.2810545 2.795148849
0.1935956627 -10.27857399 2.79411149
0.130573377 -10.28343105 2.795148849
0.06747296453 -10.28403854 2.795148849
0.004366338253 -10.27749825 2.79333353
-0.0587114878 -10.28022861 2.79411149
-0.1218566373 -10.28546906 2.79566741
-0.1849302799 -10.28259659 2.795148849
-0.2478110641 -10.27257919 2.79281497
-0.3107213676 -10.26700401 2.791777611
-0.374167949 -10.27745056 2.795148849
-0.4366489351 -10.26145267 2.791518211
-0.5000255704 -10.26726246 2.793852329
-0.5630149245 -10.26400185 2.793852329
-0.6262178421 -10.26420975 2.79488945
-0.6889922619 -10.25728226 2.79411149
-0.7525514364 -10.26153088 2.79644537
-0.8158066273 -10.26057053 2.797482729
-0.8787489533 -10.25537205 2.797482729
-0.9427169561 -10.2613287 2.800594568
-1.005944133 -10.25823402 2.801372528
-1.070569038 -10.26819897 2.805781126
-1.133765221 -10.26335716 2.806299925
-1.196718693 -10.25620651 2.806299925
-1.259744644 -10.24962997 2.806559086
-1.323229551 -10.2464962 2.807855844
-1.386205316 -10.23914146 2.808115005
-1.450494051 -10.24096203 2.810967684
-1.51429224 -10.23855686 2.812783003
-1.579292297 -10.24339008 2.816672802
-1.642726421 -10.23732185 2.817710161
-1.705986738 -10.22990799 2.818488121
-1.769217849 -10.22210217 2.819266081
-1.835144401 -10.22911644 2.824193239
-1.898050904 -10.21861267 2.824452639
-1.962171912 -10.21436214 2.826527119
-2.03852582 -10.27128506 2.845457792
-2.115651608 -10.32765388 2.864388466
-2.172596931 -10.28423882 2.856090069
-2.234427214 -10.26505375 2.854534149
-2.302225351 -10.27282524 2.860498667
-2.369118214 -10.27544689 2.865166426
-2.428783178 -10.24661922 2.861276627
-2.494350433 -10.24278545 2.864388466
-3.185628891 -12.74212551 3.560416222
-2.950441837 -11.50055122 3.2217381
-3.027830124 -11.50838375 3.228999138
-3.071742535 -11.3907423 3.201510668
-3.140291691 -11.36702538 3.200214148
-3.120368481 -11.03063393 3.111784458
-2.992803574 -10.33682728 2.923255205
-3.022723436 -10.20529079 2.891617775
-3.10627389 -10.25587749 2.911067009
-3.183419943 -10.28275681 2.924033165
-3.256936312 -10.29617977 2.933368921
-3.345874071 -10.35595989 2.955930233
-3.42266202 -10.37559223 2.967340469
-3.51152277 -10.4294529 2.988605022
-3.592389584 -10.45703602 3.002608776
-3.67819643 -10.49677753 3.020242691
-3.762676001 -10.53040028 3.036320925
-3.852001905 -10.57517815 3.055770159
-4.222918034 -11.37621403 3.292015076
-4.29742384 -11.36273575 3.295645714
-4.37643528 -11.36048794 3.302647352
-4.453111649 -11.35140228 3.30783391
-4.531273365 -11.34539127 3.314057589
-4.616437912 -11.35584831 3.325208664
-4.691935062 -11.34158802 3.329357862
-4.780165672 -11.35709381 3.342324018
-4.854701996 -11.33909321 3.345695257
-4.938062668 -11.34097099 3.355031013
-5.020456791 -11.33960056 3.36358881
-5.105396748 -11.34293175 3.373702288
-5.180522919 -11.32368755 3.377332926
-5.261712074 -11.31708717 3.384853363
-5.350851059 -11.32650566 3.397300959
-5.431529045 -11.31696987 3.404302835
-5.52286911 -11.32857513 3.417787552
-5.601702213 -11.31351566 3.42349267
-5.687498093 -11.31172085 3.433346987
-5.762945652 -11.28865433 3.436977625
-5.864538193 -11.31567955 3.455908298
-5.941502094 -11.29401302 3.460316896
-5.652756691 -10.58682156 3.256228209
-5.699208736 -10.51796913 3.245855331
-5.765034199 -10.48534012 3.246633291
-5.829262733 -10.44976997 3.246633291
-5.892795563 -10.41296482 3.246373892
-5.957539082 -10.37828732 3.246892691
-6.023536205 -10.3457098 3.248189211
-6.08493948 -10.30522823 3.247151852
-6.149048328 -10.26935577 3.24767065
-6.214951038 -10.23638535 3.24922657
-6.280173779 -10.20217133 3.25052309
-6.346233845 -10.16917992 3.252338409
-6.409543514 -10.1316824 3.25285697
-6.466898441 -10.08484554 3.25052309
-7.31010437 -11.24758339 3.635620356
-7.392260551 -11.22268105 3.642103434
-7.51620388 -11.25985432 3.668813944
-7.5911026 -11.22232342 3.671666622
-7.709499836 -11.24803257 3.695265055
-7.824089527 -11.26636124 3.716789007
-7.907518864 -11.23867893 3.723531485
-8.021170616 -11.25286674 3.744277477
-8.125116348 -11.25198746 3.760355711
-8.223650932 -11.24245739 3.773840427
-8.309149742 -11.21429157 3.781360865
-8.414320946 -11.21176338 3.797698498
-8.522694588 -11.21221066 3.815332413
-8.643759727 -11.2278204 3.838412285
-8.739209175 -11.208848 3.850081921
-8.855695724 -11.21565723 3.870827913
-8.949072838 -11.19203663 3.88146019
-9.077738762 -11.21122932 3.907133341
-9.178197861 -11.19415855 3.920618296
-9.303461075 -11.20599937 3.944476128
-9.39938736 -11.18123341 3.955886602
-9.5272789 -11.19322205 3.980522394
-9.624149323 -11.16747761 3.99219203
-9.745822906 -11.16934681 4.013975143
-9.998948097 -11.31853104 4.088920116
-11.12080479 -12.43403721 4.512916088
-11.15864563 -12.32332611 4.497615814
-9.663953781 -10.54163551 3.873680592
-9.654877663 -10.4028492 3.844636202
-9.685463905 -10.30821705 3.831669807
-9.790463448 -10.2926836 3.848007441
-9.879556656 -10.25955009 3.858121157
-9.952433586 -10.20911121 3.862010956
-11.02493382 -11.17148685 4.24814558
-11.12740135 -11.13779259 4.261111736
-11.2696991 -11.1426487 4.289118767
-11.39174557 -11.12592793 4.309346199
-11.53416348 -11.12757587 4.33709383
-11.65395832 -11.10590267 4.356284142
-11.79923248 -11.10700989 4.384809494
-15.79442024 -14.68663025 5.824840069
-12.25115204 -11.25212002 4.500209332
-12.37503815 -11.22670746 4.520177364
-12.50050926 -11.20148659 4.540663719
-12.65722942 -11.202672 4.572301388
-12.78316975 -11.17501736 4.592788219
-12.85734463 -11.10142136 4.594862938
-12.98914909 -11.07684517 4.617424011
-13.16028214 -11.08404732 4.653729439
-13.28075886 -11.04694271 4.672141552
-13.45948029 -11.05659676 4.710781097
-13.6163168 -11.04621601 4.741640568
-13.9385891 -11.16657543 4.829292297
-14.08939934 -11.14615917 4.857558727
-14.25874615 -11.13858032 4.892048836
-14.45987701 -11.15352631 4.937171459
-14.61716366 -11.13247776 4.967253208
-14.78862667 -11.12036419 5.002002716
-14.87208939 -11.04092884 5.007189274
-15.06029129 -11.03796768 5.047384262
-15.21771336 -11.01046371 5.077206612
-15.42723083 -11.01849079 5.124144554
-15.59794807 -10.99653053 5.158115864
-15.80464554 -10.99771309 5.203757286
-16.01273537 -10.99731541 5.249657631
-16.20542145 -10.98393726 5.290371895
-16.43466377 -10.99277115 5.342755318
-16.58885574 -10.94918537 5.370762348
-16.81515121 -10.95103359 5.421849251
-17.05102348 -10.95625591 5.47578907
-17.27698517 -10.9522686 5.526357174
-17.49288559 -10.93925953 5.573554516
-17.73229218 -10.93820858 5.628012657
-17.96820641 -10.93211842 5.681174278
-18.17655563 -10.90664291 5.725518703
-18.42598724 -10.90312099 5.782569885
-18.69774246 -10.90960026 5.846364021
-18.9526825 -10.90303707 5.9047122
-19.2082386 -10.8937521 5.963060379
-19.47619247 -10.88833523 6.025038719
-19.72702789 -10.87024689 6.081571579
-19.97073174 -10.84533787 6.135770321
-19.96622658 -10.68477058 6.114246368
-19.95965195 -10.52421665 6.092463017
-19.98185539 -10.37973022 6.07975626
-19.97294998 -10.2199707 6.057972908
-19.94817924 -10.05332184 6.031781197
-20.0605278 -9.956067085 6.04708147
-20.27048302 -9.905733109 6.091685295
-20.51190186 -9.86826992 6.145624638
-20.71521187 -9.810024261 6.188154221
-20.95183754 -9.765156746 6.240537643
-21.15269661 -9.701244354 6.282289028
-21.41429138 -9.662643433 6.341933727
-21.62853622 -9.600032806 6.387574673
-21.98443031 -9.596984863 6.47470808
-22.33310318 -9.586495399 6.559506893
-22.72072601 -9.588232994 6.655457497
-23.08064842 -9.573728561 6.743109226
-23.46538734 -9.565006256 6.837762356
-23.8401165 -9.547608376 6.929304123
-24.25504875 -9.541525841 7.032256126
-24.67799377 -9.533491135 7.137282848
-25.09451866 -9.517878532 7.240234375
-25.51719856 -9.499530792 7.344742298
-25.95691109 -9.48231411 7.45391798
-93.65766144 -33.56756592 26.74819946
-93.43727112 -32.84300995 26.62735367
-93.87535095 -32.35120392 26.69503784
-94.95323181 -32.07221985 26.944767
-95.30226898 -31.53997421 26.98833466
-95.72000885 -31.02788162 27.05212784
-96.21973419 -30.53872681 27.13978004
-97.08135986 -30.15777779 27.3298645
-97.41426849 -29.60703278 27.37187576
-98.2634201 -29.20770836 27.55936813
-98.60772705 -28.65273476 27.60604668
-99.17189026 -28.15794754 27.71496201
-99.85652161 -27.69137955 27.85811043
-100.4114304 -27.18288612 27.96572876
-101.2617111 -26.74730682 28.15607452
-101.7138519 -26.20016098 28.23646355
-102.3176346 -25.68727303 28.35964394
-102.9405289 -25.17323303 28.4887867
-103.2762527 -24.5847435 28.53935623
-103.6989594 -24.01399612 28.61481857
-106.0431213 -22.50867271 29.1417675
-69.73793793 -4.751102448 18.80248833
-69.71854401 -4.320181847 18.78978157
-66.29882812 -1.255485177 17.83883858
-61.9821167 -0.01069320645 16.30608368
-59.29697037 2.53815794 15.61540222
-59.03393173 2.889885187 15.55065155
-59.19375229 3.261905193 15.59762764
-59.2865448 3.632031202 15.62759113
-59.25445938 3.995152473 15.62530613
-57.67719269 4.956757545 15.23171902
-57.6167984 5.307901859 15.22410107
-58.17321014 5.719357014 15.37975883
-57.90325928 6.051757336 15.3180542
-57.72660065 6.391600132 15.28148937
-57.46630096 6.719954014 15.22334003
-56.75793457 7.344204903 15.05879498
-56.55078506 7.670483112 15.01613522
-56.54574966 8.023443222 15.02756214
-57.60571289 11.44809151 15.45288944
-57.50974655 11.79628372 15.44628716
-56.54583359 11.96056843 15.20734215
-56.62979507 12.70630455 15.2705698
-60.02364731 13.85525513 16.2062912
-59.95820618 14.22820663 16.21187592
-59.95998001 14.61783028 16.23625374
-63.06246948 18.69626045 17.30198479
-64.57009888 19.57507515 17.74737167
-26.93110275 18.22731781 8.571220398
-26.59142303 18.23630524 8.498851776
-26.48379517 18.40243721 8.500374794
-26.35772705 18.55568504 8.496312141
-26.21896362 18.69964981 8.488440514
-26.10451508 18.86074257 8.488694191
-25.9758091 19.0114193 8.484631538
-25.85012054 19.16411018 8.481838226
-25.69260216 19.29274178 8.468888283
-25.35587311 19.2843132 8.397027016
-25.09991455 19.33387566 8.351573944
-24.7573719 19.31320381 8.277173042
-24.55112457 19.3957901 8.247971535
-24.25039291 19.40104485 8.187028885
-23.13738823 18.74453163 7.85133791
-22.83275223 18.73093414 7.787094593
-22.55669212 18.7371788 7.732246399
-22.3221283 18.77499008 7.691364288
-22.1004715 18.82129288 7.654798985
